ply
format ascii 1.0
comment Created by Open3D
element vertex 943
property float x
property float y
property float z
property float nx
property float ny
property float nz
end_header
-23.5687 -46.3631 0.2169 -1.33824 0.0380922 -1.37903
40.8061 -47.9832 0.2169 0.935635 0.00717708 -1.53466
32.0957 -50.9415 0.2169 0.598585 -0.0492722 -1.81885
23.4511 -49.3799 0.2169 -0.121423 -0.0194745 -1.66884
12.8297 -59.5701 0.2169 0.031837 -0.213923 -2.64775
19.7822 -48.3474 0.2169 -0.458701 0.000228876 -1.56964
29.1272 -59.7725 0.2169 1.15425 -0.217784 -2.66719
27.0843 -54.8153 0.2169 0.590823 -0.123191 -2.19098
35.4364 -56.5525 0.2169 1.30605 -0.15634 -2.35786
19.2159 -55.2286 0.2169 0.0927239 -0.131078 -2.23068
12.3081 -47.9837 0.2169 -0.996664 0.00716895 -1.53471
31.7968 -57.326 0.2169 1.12556 -0.1711 -2.43217
9.08947 -48.3261 0.2169 -1.18555 0.000633598 -1.56761
44.6538 -57.4068 0.2169 2.00428 -0.172642 -2.43993
1.85205 -55.0697 0.2169 -1.09827 -0.128046 -2.21542
14.3458 -50.835 0.2169 -0.614096 -0.0472407 -1.80862
-5.4604 -55.1412 0.2169 -1.58797 -0.129411 -2.22229
-14.0977 -56.4591 0.2169 -2.06067 -0.154559 -2.3489
48.1455 -47.5122 0.2169 1.39292 0.0161648 -1.48942
13.328 -63.2816 0.2169 0.383753 -0.284745 -3.00429
18.5938 -45.7005 0.2169 -0.766155 0.0507354 -1.31538
28.3651 -63.6703 0.2169 1.43668 -0.292163 -3.04164
46.9162 -38.4191 0.2169 0.53015 0.18968 -0.61589
23.2089 -53.4023 0.2169 0.206936 -0.09623 -2.05525
22.359 -46.5269 0.2169 -0.440021 0.0349668 -1.39476
15.0093 -56.1535 0.2169 -0.113225 -0.148728 -2.31954
35.0827 -43.1881 0.2169 0.136542 0.0986772 -1.07402
24.4629 -43.1204 0.2169 -0.589353 0.0999702 -1.06751
46.8217 -51.3702 0.2169 1.63385 -0.0574532 -1.86003
26.3725 -46.2243 0.2169 -0.193818 0.0407405 -1.3657
-12.5571 -59.4607 0.2169 -1.69893 -0.211835 -2.63724
3.69855 -62.5988 0.2169 -0.327709 -0.271716 -2.9387
34.9312 -39.3584 0.2169 -0.201991 0.171755 -0.706128
34.7928 -49.4783 0.2169 0.656053 -0.0213525 -1.67829
-9.55443 -60.4686 0.2169 -1.40893 -0.231068 -2.73406
25.1392 -57.4999 0.2169 0.689047 -0.174419 -2.44888
43.9127 -52.8057 0.2169 1.55964 -0.0848445 -1.99793
7.06182 -62.1214 0.2169 -0.140576 -0.262607 -2.89284
12.2326 -48.0049 0.2169 -0.999968 0.00676359 -1.53675
45.6178 -41.047 0.2169 0.667358 0.139534 -0.868339
28.5793 -57.9472 0.2169 0.960653 -0.182956 -2.49185
16.9314 -49.3657 0.2169 -0.564718 -0.0192023 -1.66747
49.2446 -62.4629 0.2169 2.74895 -0.269123 -2.92565
25.0324 -63.7991 0.2169 1.22174 -0.294621 -3.05401
31.5762 -62.3283 0.2169 1.53938 -0.266555 -2.91272
24.7188 -42.9375 0.2169 -0.587674 0.103459 -1.04995
34.6351 -46.404 0.2169 0.381842 0.0373115 -1.38296
27.9447 -41.5006 0.2169 -0.492102 0.130878 -0.911916
26.2013 -51.0164 0.2169 0.205328 -0.0507012 -1.82604
38.5725 -54.2692 0.2169 1.32299 -0.112772 -2.13853
41.6917 -55.9714 0.2169 1.68039 -0.145253 -2.30205
31.7828 -40.4815 0.2169 -0.319212 0.150325 -0.814014
35.1033 -42.9878 0.2169 0.120763 0.1025 -1.05478
46.7624 -50.2015 0.2169 1.52965 -0.0351527 -1.74777
44.8231 -35.0206 0.2169 0.0969189 0.25453 -0.289414
-0.0481316 -58.3395 0.2169 -0.946843 -0.190441 -2.52953
-11.2866 10.2172 18.8881 0.0998755 -0.507231 1.5708
-26.076 -48.6896 15.0559 2.42648 -1.67556 -0.26352
-32.8398 -63.4433 15.0158 -1.41513 2.43047 -0.173285
-45.1781 -70.584 15.4804 -1.48077 -0.70652 0
-43.2304 -64.0277 15.5336 -0.307035 -1.99696 0
-25.3398 -65.8906 11.3808 -2.33407 2.10225 -1.33297
-29.3894 -68.9197 11.3869 -1.35768 2.83267 -1.25162
-32.1881 -70.1896 10.5301 0.106005 -0.516953 3.13785
-36.1321 -70.2515 10.5301 0.102788 2.10917 3.15632
-21.9576 -60.7096 3.56898 3.03169 -0.822608 -2.27787
-26.4964 -67.6799 3.71595 1.97868 -2.4397 -0.992866
-32.106 -70.386 3.7203 0.677173 -3.06753 -0.954806
-36.1386 -70.1714 3.68159 0.181779 3.13597 -1.30953
-36.2559 -66.0322 -2.15116 -0.556224 -1.66541 1.34325
-34.2062 -63.9387 -2.12971 1.97607 0.245379 1.31662
-30.9734 -62.0654 -2.3351 0.259004 1.09244 2.18605
-30.3843 -62.0721 -2.3351 -0.577617 1.64309 2.67115
-28.2264 -59.8379 -1.65581 0.432976 1.78848 0.730029
-25.6449 -57.3791 -2.00392 0.560324 1.66112 1.16089
-42.6736 -64.5742 10.5696 0.482758 1.78427 -1.51218
-24.5171 -49.4675 7.61413 -0.389824 -1.90572 0.0635032
-24.4873 -49.5002 10.9939 -0.351801 -1.94752 0.900413
-27.4586 -49.3959 7.18797 -0.00807341 -2.13128 -0.0417088
-27.4058 -49.3478 12.3652 0.0664736 -2.06307 1.24054
-27.3241 -49.0591 3.73941 -1.78049 0.503083 -0.895091
-26.8808 -48.6559 3.68651 -1.15345 1.07395 -0.908421
-24.943 -52.6628 10.1473 1.2267 0.985831 -1.45626
-28.8346 -52.0689 10.5293 0.110975 1.65945 1.5708
-37.9714 -59.4167 10.5293 -1.3842 0.692885 1.5708
-32.4337 -56.6973 10.5293 -0.254985 0.773289 1.5708
-29.3733 -56.743 10.5293 0.568254 0.366359 1.57079
-30.532 -60.0984 10.5293 0.690373 -0.462659 1.57079
-39.787 -65.3356 10.5293 -1.10783 -0.798831 1.5708
-29.7374 -54.8247 10.1328 0.224296 0.972313 -1.5708
-33.9425 -59.3518 10.1328 -0.316537 0.193625 -1.57079
-33.7194 -59.4829 10.1328 -0.240084 0.126711 -1.57079
-40.659 -61.4448 10.1328 -1.84115 0.447428 -1.57079
-36.3838 -66.6619 10.1328 -0.0283372 -1.62312 -1.5708
-36.2321 -62.151 10.1328 -0.567999 -0.327792 -1.57079
-36.3228 -63.0033 10.1328 -0.482604 -0.564555 -1.5708
-30.5774 -60.3243 10.1328 0.707281 -0.522638 -1.57079
-35.5326 -66.6596 10.1328 0.198685 -1.7319 -1.5708
-37.4312 -58.5057 10.1734 -1.35712 0.888964 -1.24881
-25.3688 -52.3088 3.43956 1.25118 0.958926 -0.222342
-24.3067 -49.7896 3.74003 0.574975 1.70229 0.20155
-21.7655 -52.4504 8.96904 0.480118 1.80671 0.516213
-22.6472 -53.2144 3.09996 -1.97168 0.329957 1.12177
-39.6381 -68.7072 10.5311 0.940491 0.848605 1.57079
-41.1664 -69.9898 7.34925 -1.11031 1.11349 1.5031
-39.3548 -68.4811 3.70862 0.76183 -1.43046 -0.0239213
-42.1882 -65.187 4.77905 1.89224 -0.402308 -0.682746
-42.1101 -72.5566 3.8672 1.55246 -0.432497 -2.75451
52.1301 -35.1814 7.3559 -0.431794 0.28385 1.5708
-43.0475 -69.1445 3.789 0.447309 -0.826998 1.56998
-42.6934 -68.3631 3.4718 0.681715 -0.206951 -1.56831
-44.0858 -69.4096 6.8813 -0.372437 -0.977316 -1.57048
-43.8644 -69.7674 9.9704 -0.170596 -1.28628 -1.57128
-34.4466 -61.1898 14.2418 -2.04081 -0.0909524 0.88859
-29.3745 -56.2418 13.9835 -0.693798 1.49236 -0.134836
-33.766 -66.4836 4.6593 -1.15909 -1.07677 2.12724
-28.9151 -61.8626 4.6593 -0.385272 0.0318169 2.0713
-25.7377 -58.3182 4.44398 -0.364719 1.7917 0.148803
-34.5008 -66.2893 4.38067 -1.71047 0.567531 -0.269304
-31.2582 -64.5858 4.1836 -0.153912 -1.09245 -2.52509
-30.7722 -64.6624 4.6593 -0.0169685 -1.1187 2.54345
-26.2595 -62.4334 4.1836 0.705673 -0.374197 -2.3606
-26.3411 -63.0516 4.1836 0.848905 -0.627214 -2.4486
-24.0755 -58.9877 4.1836 0.566505 0.879269 -2.00165
-29.9498 -52.2764 7.4863 -0.156188 1.73334 1.5708
-30.4951 -58.0713 7.4863 0.443517 0.114348 1.57079
-35.9978 -58.1208 7.4863 -1.01975 0.807661 1.57079
-41.2663 -62.0566 7.4863 -1.92064 0.33809 1.57079
-29.8797 -52.0499 7.4863 -0.166587 1.79032 1.5708
-31.9244 -63.8623 7.28681 0.806588 -1.38975 -0.00979267
-26.0304 -58.5009 7.38056 1.69118 -0.585088 0.733002
-38.0879 -68.8598 7.4863 -0.19675 -2.05371 1.5708
-36.8327 -64.9553 7.4863 -0.363706 -1.07707 1.5708
-37.6449 -61.469 7.4863 -1.02902 0.0435839 1.57079
-25.3365 -53.6407 7.0898 1.25138 0.742313 -1.57079
-37.3636 -60.7019 7.0898 -1.05256 0.230997 -1.57079
-32.3622 -55.5928 7.0898 -0.373931 1.07693 -1.5708
-26.3537 -52.3486 7.0898 0.813539 1.24977 -1.5708
-34.3496 -57.7823 7.0898 -0.623091 0.694352 -1.57079
-27.7879 -55.5896 7.0898 0.847344 0.489541 -1.57079
-28.3805 -55.8638 7.0898 0.724355 0.485821 -1.57079
-30.0483 -60.6278 7.0898 0.891664 -0.688284 -1.57079
-33.8777 -63.7158 7.0898 0.266075 -1.09583 -1.5708
-33.3486 -60.6963 7.0898 0.0190368 -0.28376 -1.57079
-37.1272 -65.6673 7.0898 -0.350797 -1.2467 -1.5708
-29.9548 -29.4025 7.65181 1.5708 -0.59042 -0.51358
-29.0733 -21.9599 9.92515 -3.1402 0.00440848 2.2715
-31.1002 -25.7014 6.97905 1.89374 2.57565 0
-52.2945 -18.8793 10.0277 3.87041 0.411217 0.00109937
-39.991 -18.8786 7.67727 3.16376 -1.37272 0
-45.6989 -18.8912 6.83757 2.92177 1.44402 0
-44.4568 -18.7623 1.03713 0 3.14159 1.60449
-61.4208 -22.6413 6.80117 -3.39444 1.15679 -0.00911059
-61.3604 -52.1822 9.95311 1.10892 -3.23591 0.000425831
-61.3664 -19.0144 11.3877 -0.730472 1.23018 4.35723
-61.3883 -42.6351 8.20697 2.90597 1.47402 0
-58.8962 -57.7382 10.0215 2.28029 2.16789 0
48.3482 -34.334 7.55879 -1.5708 -0.132308 0.590776
-24.4721 -49.5067 10.7714 1.84303 0.30808 -1.27292
-40.7251 -66.755 7.78523 0.422626 1.86975 -1.05848
-41.8306 -65.6203 4.71061 1.42368 -0.828551 -0.756074
-59.7061 -30.7731 3.19125 0.255254 1.5708 1.06912
-36.2805 9.8473 10.1647 0.843029 -1.91951 1.5708
-19.9008 9.82863 12.635 1.5708 -0.811564 0
-36.585 9.83911 9.8818 0 -0.801955 1.5708
9.6546 -39.3832 3.51291 0 -1.27445 -0.777058
12.7217 -39.4165 3.2979 0 -2.59513 3.14159
15.696 -39.3957 3.2759 0.418629 -2.65565 -1.5708
12.7249 -39.4303 2.8805 0 -1.5708 -0.0177052
45.4038 -34.3365 7.49325 1.5708 -0.953129 0
36.7237 -34.3232 8.15184 -1.5708 -0.424912 0
42.4471 -34.3521 6.96998 0 -1.5708 -0.577779
46.8223 -34.3316 4.8333 0 -0.756604 1.5708
-22.1204 -55.694 9.9995 0.981086 2.34185 2.06162
-34.5211 -70.4746 7.5082 -3.09653 -1.63892 9.47164e-05
-31.4383 -70.0866 7.46917 3.6936 -1.63125 -4.48812e-05
-30.8867 -69.8907 7.69474 -0.650955 -2.45818 -0.377693
-28.0842 -68.631 7.9894 2.01385 -0.494178 -0.000289019
-27.3278 -68.1178 7.6146 1.33958 -1.91943 3.13696
-24.5667 -65.5739 7.94858 1.8338 0.530681 0
-36.6186 -70.4063 4.97967 -2.33419 -0.0862498 -0.835903
-23.3087 -63.7736 5.07782 3.06773 1.31391 -0.477704
-23.0736 -63.0689 4.7785 0.301437 -0.152051 -3.14936
-21.9509 -60.5408 6.3973 1.07878 -0.28371 2.23618
-10.6123 -39.4278 3.8652 -1.03712 -2.05508 -2.10448
-7.72454 -39.4238 4.6119 0 -1.44266 1.5708
-45.1525 -31.8367 4.47013 -1.57079 0.170407 -0.637408
-50.6465 -56.7622 4.62554 0.411496 1.5708 -0.597572
-47.9013 -59.8704 11.0512 1.5708 1.06687 -1.0534
42.1488 14.1496 5.01911 0.279891 1.57079 0.113282
29.8123 -13.9609 5.0559 -1.37514 -1.19957 1.5708
48.375 13.2433 5.0559 1.11518 1.48148 1.5708
30.9453 -4.79515 5.0559 -1.22314 -0.29626 1.5708
43.9824 9.5445 5.0559 0.52589 1.11695 1.5708
39.9475 9.98239 5.0559 -0.0154279 1.16011 1.5708
36.064 12.2463 5.0559 -0.536434 1.38322 1.5708
31.8074 -8.43734 5.0559 -1.10748 -0.655207 1.5708
34.335 -4.64264 5.0559 -0.768394 -0.281229 1.5708
37.0371 8.78992 5.0559 -0.405884 1.04258 1.5708
32.0507 3.24875 5.0559 -1.07484 0.496487 1.5708
29.929 13.9048 5.0559 -1.35948 1.54667 1.5708
30.6721 3.79225 5.0559 -1.2598 0.55005 1.5708
34.3103 -5.72808 5.0559 -0.7717 -0.388202 1.5708
38.3655 -2.38516 5.0559 -0.227659 -0.0587481 1.5708
32.7982 11.7443 5.0559 -0.974556 1.33374 1.5708
40.8713 9.7622 5.0559 0.108504 1.13841 1.5708
31.5476 -3.97467 5.0559 -1.14234 -0.215399 1.5708
30.8299 7.35712 5.0559 -1.23862 0.901377 1.5708
48.646 -10.918 5.0559 1.15154 -0.899682 1.5708
44.6252 -1.41856 5.0559 0.612118 0.0365132 1.5708
47.8356 -4.7816 5.0559 1.04281 -0.294923 1.5708
40.8676 -16.8366 5.0559 0.108013 -1.48297 1.5708
49.5703 -6.02968 5.0559 1.27555 -0.417923 1.5708
32.762 -17.282 5.0559 -0.97942 -1.52688 1.5708
41.3431 -0.965212 5.0559 0.171799 0.0811915 1.5708
35.7895 -9.40833 5.0559 -0.573254 -0.7509 1.5708
50.0963 -1.13586 5.0559 1.34611 0.0643744 1.5708
49.0427 3.59118 5.0559 1.20476 0.530236 1.5708
42.8784 -16.4412 5.0559 0.377775 -1.44401 1.5708
49.6776 2.50514 5.0559 1.28994 0.423204 1.5708
43.9069 1.63525 5.0559 0.51575 0.337474 1.5708
35.9442 -17.4518 5.0559 -0.552509 -1.54361 1.5708
45.3335 -9.43908 5.0559 0.707149 -0.753929 1.5708
48.7247 -17.6734 5.0559 1.1621 -1.56545 1.5708
46.2355 -1.82198 5.0559 0.828151 -0.00324453 1.5708
44.1426 -9.92904 5.0559 0.547377 -0.802216 1.5708
41.8368 -8.22303 5.0559 0.23804 -0.634085 1.5708
38.9283 -11.2067 5.0559 -0.152163 -0.92813 1.5708
35.2814 -1.02114 4.9766 -0.641424 0.0756799 -1.5708
31.1926 -0.182426 4.9766 -1.18996 0.158338 -1.5708
41.6197 5.86995 4.9766 0.208914 0.754814 -1.5708
39.1408 1.59921 4.9766 -0.123648 0.333921 -1.5708
38.8039 -2.72673 4.9766 -0.168846 -0.0924107 -1.5708
37.934 4.5039 4.9766 -0.285549 0.620186 -1.5708
30.0483 10.1099 4.9766 -1.34348 1.17268 -1.5708
35.1023 2.3668 4.9766 -0.665451 0.40957 -1.5708
34.7141 6.15808 4.9766 -0.717529 0.783211 -1.5708
34.7678 5.39805 4.9766 -0.710321 0.708308 -1.5708
33.0335 10.7157 4.9766 -0.942994 1.23237 -1.5708
40.1974 2.02032 4.9766 0.0180971 0.375423 -1.5708
37.4154 7.65151 4.9766 -0.355124 0.930391 -1.5708
31.9355 -7.97411 4.9766 -1.0903 -0.609552 -1.5708
31.1324 -0.730755 4.9766 -1.19804 0.104299 -1.5708
32.3287 7.77984 4.9766 -1.03755 0.94304 -1.5708
44.3722 8.99432 4.9766 0.578172 1.06273 -1.5708
42.7658 6.07392 4.9766 0.362667 0.774916 -1.5708
38.8008 -7.2346 4.9766 -0.169268 -0.536673 -1.5708
36.1058 -16.2943 4.9766 -0.530824 -1.42953 -1.5708
47.1406 0.965331 4.9766 0.949587 0.27145 -1.5708
38.8824 -14.9778 4.9766 -0.158322 -1.29978 -1.5708
49.394 -17.047 4.9766 1.2519 -1.50372 -1.5708
47.5804 -14.4031 4.9766 1.00858 -1.24315 -1.5708
44.1823 -5.34855 4.9766 0.552706 -0.350798 -1.5708
48.575 -10.7265 4.9766 1.14202 -0.880807 -1.5708
41.644 -1.33083 4.9766 0.212168 0.045159 -1.5708
44.1903 2.27901 4.9766 0.553781 0.400917 -1.5708
32.4215 -16.0439 4.9766 -1.0251 -1.40485 -1.5708
35.652 -12.491 4.9766 -0.591698 -1.0547 -1.5708
49.3045 10.4696 4.9766 1.23988 1.20812 -1.5708
48.9418 9.28099 4.9766 1.19123 1.09098 -1.5708
44.6384 -5.73545 4.9766 0.613893 -0.388928 -1.5708
35.3394 -9.68435 4.9766 -0.633642 -0.778102 -1.5708
40.995 -4.60336 4.9766 0.125106 -0.277357 -1.5708
41.8507 -12.7542 4.9766 0.239902 -1.08064 -1.5708
44.4837 -14.1617 4.9766 0.593145 -1.21936 -1.5708
38.3796 -6.9337 4.9766 -0.225774 -0.507019 -1.5708
45.6408 -17.6238 4.9766 0.748377 -1.56056 -1.5708
46.6367 6.29617 4.9766 0.881983 0.796818 -1.5708
46.6645 5.8861 4.9766 0.885713 0.756405 -1.5708
35.5218 -12.7795 4.9766 -0.609166 -1.08313 -1.5708
43.9358 -11.988 10.539 2.42841 -0.713185 1.38016
43.9358 8.96204 10.5388 1.84741 1.29419 0.235751
29.0143 4.5097 10.529 1.4798 2.96448 -1.57084
41.9342 4.0967 10.5337 -0.131902 -4.61835 -1.4768
52.2708 4.0968 9.41155 1.5708 -1.56127 0.868576
45.9973 3.704 10.6516 1.4613 -2.28364 0.857945
49.7163 2.5414 10.6805 1.37842 -1.71229 1.4293
-30.8788 -20.2547 3.7891 -0.375032 0.522169 -1.5708
-30.1391 -24.1853 3.9476 0.847805 -0.847805 2.498
-34.7499 -25.1937 3.9476 1.33745 -1.33745 4.25044
-30.3069 -24.2034 3.9476 0.85662 -0.85662 2.5669
-52.5952 -20.1641 3.9476 -1.10485 1.10485 2.45508
-35.5307 -21.0883 3.9476 -0.656054 0.656054 4.4523
-46.3292 -21.9286 3.9476 -0.24801 0.248012 3.2893
-39.3388 -21.0867 3.9476 -0.656835 0.656836 4.02108
-42.8896 -21.5445 3.9476 -0.434514 0.434515 3.65151
-38.162 -24.0936 3.9476 0.803261 -0.80326 4.36707
-46.8725 -21.931 3.7891 -0.246857 0.246848 -3.22796
-43.1872 -22.1386 3.7891 -0.146047 0.146041 -3.65985
-48.8852 -26.0532 3.9476 0.732398 -0.732375 3.874
-48.7296 -24.6858 3.9476 0.441064 -0.441048 3.58266
-56.5926 -21.4494 3.9476 -0.842218 0.842229 2.29938
-47.6658 -28.9138 3.9476 1.45334 -1.4533 4.59494
-43.0181 -27.7633 3.9476 1.53401 -1.53399 4.67561
-41.2937 -24.943 3.9476 1.03434 -1.03434 4.17594
-53.5852 -27.7443 3.9476 0.767572 -0.767532 3.90918
-57.3071 -25.6319 3.9476 0.0288357 -0.0255748 3.16873
-56.1239 -30.5459 3.9476 0.89232 -0.542104 3.84873
-57.699 -48.1192 3.9476 -0.20941 0.255781 2.909
-59.0051 -34.2283 3.9476 -1.18644 0.771454 2.17551
-59.6104 -27.8596 3.9476 -1.64156 1.0053 1.8372
-56.5752 -51.8059 3.9476 0.904967 0.426194 3.34354
-59.6879 -35.3638 3.9476 -1.97538 0.417085 1.99175
-58.5202 -38.5715 3.9476 -0.796762 0.640477 2.42846
-39.8037 -28.3641 3.9476 1.5708 -1.57078 3.9523
-39.1752 -28.467 3.9476 1.5708 -1.57079 3.79444
-47.2956 -29.5544 3.9476 1.5708 -1.57076 4.59427
-42.0967 -31.4827 3.7891 1.5708 -1.57078 -2.73649
-50.3347 -21.8361 3.7891 -0.305277 0.305265 -2.83633
-45.6878 -25.436 3.7891 0.826459 -0.82645 -3.96806
-51.8174 -24.7893 3.7891 0.241232 -0.241221 -3.38284
-44.2433 -27.89 3.7891 1.47366 -1.47364 -4.61526
-57.9268 -21.72 3.7891 -0.87861 0.878605 -2.263
-53.4381 -24.5391 3.7891 0.0689692 -0.0689581 -3.21058
-56.848 -26.167 3.7891 0.183198 -0.183171 -3.32481
-54.9125 -34.6843 3.7891 1.72568 -1.18501 -4.58138
-55.1816 -37.8773 3.7891 1.77416 -0.516872 -4.25085
-55.1822 -44.1425 3.7891 2.12976 0.284053 -3.99478
-56.0128 -29.4399 3.7891 0.884345 -0.79081 -3.97651
-55.0352 -34.0419 3.7891 1.62862 -1.14847 -4.51632
-55.2344 -37.7889 3.7891 1.74305 -0.477094 -4.21515
-59.0715 -31.2983 3.7891 -1.1625 0.962884 -2.08532
-58.0795 -40.1552 3.7891 -0.364311 0.697058 -2.60215
-58.3074 -44.5472 3.7891 -0.760621 0.280582 -2.63624
-56.4703 -51.467 3.7891 1.03168 0.49288 -3.36787
-58.6382 -47.9879 3.7891 -1.23851 -0.105851 -2.61598
-55.2757 -55.2004 3.9476 0.729429 -0.016499 3.12511
-53.5621 -58.0999 3.9476 0.502054 -0.505792 2.77705
-58.6698 -54.0678 3.9476 -1.52356 -0.593142 2.72791
-53.4522 -61.0668 3.7891 -1.14302 -1.46953 -2.09932
-53.2322 -60.983 3.7891 -0.904796 -1.37945 -2.16211
-47.8861 -64.6034 3.7891 0.954285 -1.11137 -2.03338
-49.3655 -61.4767 3.7891 1.50672 -0.480297 -2.47588
-46.1737 -67.2432 3.7891 0.635897 -1.5236 -1.61914
-47.6081 -64.6336 3.9476 1.0332 -1.04884 2.00598
-35.0351 -25.9221 3.97418 -0.940718 1.5708 -0.103946
-33.724 -31.7643 4.1855 -0.605663 -1.43965 3.61611
-32.4024 -27.7662 3.7891 0.168994 0.725154 -1.5708
-29.8756 -31.2431 3.7891 1.23407 -0.869234 -1.5708
-31.7539 -25.1007 7.3578 1.2923 -1.2923 2.95704
-40.1995 -21.8821 7.3578 -0.270572 0.270572 3.97994
-35.4786 -23.899 7.3578 0.708781 -0.708781 4.65708
-42.781 -20.6711 7.3578 -0.858633 0.858633 3.602
-36.3501 -20.7685 7.3578 -0.811352 0.811352 4.33691
-31.7782 -21.1043 7.1992 -0.648303 0.648303 -4.0674
-35.0214 -24.2192 7.1992 0.864281 -0.864281 -4.63809
-49.6127 -21.2848 7.1992 -0.560628 0.560617 -2.87203
-36.6147 -20.8383 7.1992 -0.777426 0.777424 -4.3119
-49.1498 -27.5809 7.3578 1.05135 -1.05132 4.19295
-56.1516 -20.9542 7.3578 -0.919983 0.919987 2.22161
-55.0714 -26.7965 7.3578 0.450663 -0.45063 3.59227
-46.8602 -22.7815 7.3578 0.154551 -0.154551 3.29614
-55.4347 -20.4134 7.3578 -0.987943 0.987943 2.15365
-48.8959 -27.2132 7.3578 0.988313 -0.988287 4.12992
-39.2435 -25.7493 7.3578 1.36063 -1.36062 4.50222
-52.5363 -25.1987 7.3578 0.279967 -0.279946 3.42157
-55.3442 -27.5214 7.3578 0.591384 -0.591346 3.73299
-58.1799 -23.7109 7.3578 -0.51137 0.57317 2.59756
-59.3127 -21.0854 7.3578 -1.21998 1.33333 1.86167
-58.0071 -42.6412 7.3578 -0.366962 0.540983 2.68363
-58.7438 -34.6977 7.3578 -0.914533 0.839871 2.26731
-55.8168 -47.7146 7.3578 1.87502 1.03008 3.48034
-57.9386 -51.5078 7.3578 -0.585357 -0.09077 2.91562
-58.7668 -51.3106 7.3578 -1.49014 -0.403601 2.65529
-58.4325 -38.2747 7.3578 -0.690422 0.697205 2.44848
-44.6942 -29.3818 7.3578 1.5708 -1.57077 4.24797
-44.2608 -29.3044 7.3578 1.5708 -1.57077 4.21518
-41.4396 -28.3416 7.3578 1.5708 -1.57078 4.23726
-47.6264 -31.3649 7.1992 1.5708 -1.57077 -3.72123
-38.2371 -29.134 7.1992 1.5708 -1.57079 -3.29566
-57.6937 -24.2686 7.1992 -0.297864 0.297875 -2.84375
-52.4009 -21.9675 7.1992 -0.425239 0.425231 -2.71637
-49.7421 -23.3951 7.1992 0.0824358 -0.0824375 -3.22404
-51.774 -29.0895 7.1992 1.19587 -1.19583 -4.33748
-43.8501 -24.0427 7.1992 0.650717 -0.650721 -3.79232
-45.9333 -26.3195 7.1992 1.00425 -1.00424 -4.14586
-38.8426 -25.0553 7.1992 1.23598 -1.23599 -4.37758
-45.8085 -26.235 7.1992 0.994555 -0.994542 -4.13616
-55.7544 -32.8423 7.1992 1.20526 -0.60613 -4.03003
-57.849 -28.3626 7.1992 -0.0836858 0.847326 -2.65406
-56.2974 -47.6404 7.1992 1.34869 0.845575 -3.33024
-59.6443 -46.2889 7.1992 -2.28933 -0.377453 -2.26502
-57.6953 -41.2184 7.1992 0.0232198 0.769979 -2.74603
-58.4586 -34.3326 7.1992 -0.588571 0.979796 -2.34667
-54.7554 -58.8182 7.3578 -0.944638 -1.08284 2.37427
-50.5375 -63.3803 7.3578 0.00557105 -1.42388 2.12441
-58.3095 -55.2474 7.3578 -1.90555 -0.887127 2.52038
-51.9066 -59.9984 7.3578 0.811792 -0.675806 2.65356
-57.5194 -54.6799 7.3578 -0.893739 -0.474216 2.80875
-49.7727 -63.3497 7.3578 0.680832 -1.19811 2.28128
-54.9121 -55.9582 7.1992 0.597548 -0.168138 -3.01764
-54.7297 -58.8282 7.1992 -0.928415 -1.07896 -2.37693
-47.2051 -65.7373 7.3578 0.800097 -1.30264 1.86022
-48.2307 -65.9184 7.3578 0.413132 -1.62832 1.93205
-28.994 -25.2373 10.3711 1.53991 -1.40207 -1.5708
-31.7166 -23.3789 10.5297 0.456243 -0.456243 3.41438
-37.5155 -19.8403 10.5297 -1.26205 1.26205 4.1393
-42.3895 -19.4785 10.5297 -1.43774 1.43774 3.56194
-37.7383 -20.112 10.5297 -1.13012 1.13012 4.13331
-55.5953 -20.0787 10.3711 -1.14631 1.1463 -2.10942
-45.5436 -22.9102 10.3711 0.228644 -0.228652 -3.44769
-39.129 -23.026 10.3711 0.284856 -0.284859 -4.18206
-39.5544 -23.0687 10.3711 0.305609 -0.305612 -4.13692
-45.992 -21.5118 10.3711 -0.450418 0.45041 -3.29797
-33.5012 -21.0951 10.3711 -0.652754 0.652753 -4.68253
-52.8145 -28.5291 10.5297 0.996817 -0.996778 4.13843
-58.6107 -20.8613 10.5297 -1.11793 1.11793 2.02367
-47.1519 -28.7031 10.5297 1.44378 -1.44375 4.58538
-54.6771 -24.4001 10.5297 -0.051153 0.0511729 3.09045
-50.8897 -25.708 10.5297 0.511445 -0.511423 3.65305
-57.4422 -33.4088 10.5297 0.403867 1.09856 2.75088
-58.2994 -23.8508 10.5297 -0.562412 0.706544 2.50297
-59.7565 -45.1712 10.5297 -2.37573 -0.338757 2.20382
-56.0255 -45.7476 10.5297 1.71052 1.09371 3.36914
-57.9496 -38.0424 10.5297 -0.151359 0.905418 2.59201
-58.4127 -41.8967 10.5297 -0.788645 0.435901 2.54072
-58.8195 -37.1464 10.5297 -1.07895 0.627989 2.30217
-59.5525 -27.4766 10.5297 -1.56512 1.05667 1.84598
-41.142 -28.0832 10.5297 1.5708 -1.57078 4.32002
-41.3331 -28.6826 10.5297 1.5708 -1.57078 4.04462
-38.4958 -26.9525 10.5297 1.5708 -1.57079 4.45749
-51.1375 -31.2945 10.3711 1.5708 -1.57076 -4.34422
-50.7677 -30.7225 10.3711 1.5708 -1.57076 -4.57573
-46.0038 -28.1384 10.3711 1.40165 -1.40162 -4.54325
-43.362 -25.1145 10.3711 0.923098 -0.923095 -4.0647
-54.1785 -24.1063 10.3711 -0.0802111 0.0802182 -3.0614
-42.3364 -24.6887 10.3711 0.902861 -0.902862 -4.04446
-50.8125 -21.6609 10.3711 -0.378504 0.378492 -2.7631
-48.6497 -23.6724 10.3711 0.222591 -0.222592 -3.36419
-53.0442 -27.9648 10.3711 0.85538 -0.855349 -3.99699
-51.3395 -25.2955 10.3711 0.387717 -0.387705 -3.52932
-56.5668 -29.3658 10.3711 0.606528 -0.264514 -3.56727
-56.8689 -29.2194 10.3711 0.449004 0.00894832 -3.34843
-58.1275 -33.2808 10.3711 -0.189398 1.18888 -2.42386
-56.2038 -45.7221 10.3711 1.51521 1.02512 -3.31351
-57.8226 -49.5312 10.3711 -0.392245 0.101963 -2.90442
-58.0789 -53.5374 10.3711 -0.806973 -0.297055 -2.92058
-57.9916 -50.2198 10.3711 -0.600961 -0.0160042 -2.86864
-59.6452 -44.8139 10.3711 -2.24149 -0.268223 -2.22965
-55.032 -57.8589 10.5297 -0.619884 -0.839153 2.54624
-58.2313 -54.1744 10.5297 -1.20917 -0.505323 2.78859
-50.2876 -62.316 10.5297 0.84435 -0.996645 2.42413
-53.0456 -60.6612 10.5297 -0.555787 -1.21899 2.27446
-49.9693 -62.0247 10.3711 1.13418 -0.815485 -2.47401
-45.9839 -67.4015 10.3711 0.644617 -1.52566 -1.58667
-46.5929 -64.0938 10.5297 1.5344 -0.609325 1.97096
-7.60274 -39.2181 5.0898 -1.14767 -0.849103 1.5708
-4.12452 -39.632 5.01095 -0.795888 -1.5708 -1.55296
-13.444 10.5431 8.43555 -2.40767 -1.22371 0.845643
-13.3775 13.6053 6.42045 1.78677 0.99991 -0.254147
-13.3421 13.0349 3.36826 -2.82795 0.0452352 -2.47545
-13.3376 13.394 6.75112 3.05925 -0.184111 -1.17942
-13.3421 10.1798 11.8763 -1.5708 1.4261 0.703096
-13.3421 11.5037 12.4317 -2.31352 -1.45499 1.03347
-53.5084 35.379 4.18523 -0.140346 -2.23267 1.50832
-53.7927 35.6914 4.0431 -0.122946 -2.22595 -1.26831
-39.9686 20.4957 4.1326 -0.969134 -2.55253 -0.174782
-46.6958 27.8969 3.8672 -0.551559 -2.27137 -3.60004
-24.4695 16.9731 4.17703 -1.44125 -1.91362 2.19887
-40.2699 21.0625 4.09097 0.94713 2.54402 -0.727455
-29.5043 17.139 4.27679 1.32563 2.21176 2.58867
-18.4407 12.0722 4.06535 1.57124 -0.546886 -0.260188
-22.1512 9.79947 4.17677 -1.12797 1.73958 1.30161
-39.0395 9.80454 3.89536 0.972887 2.5543 -3.55482
-52.1695 23.4037 4.1946 -2.21895 0.104896 1.11185
-40.796 21.4052 9.90903 -0.918533 -2.53295 0.366607
-49.6958 20.6846 9.96367 -2.21895 0.104896 2.12915
-52.9158 26.8978 9.739 -2.21895 0.104894 -1.58686
-55.1237 34.5768 6.86682 2.21903 -0.104838 -1.68547
-44.5288 25.5084 7.06035 -0.690008 -2.44475 0.672511
-49.1633 30.7021 7.1973 -0.317649 -0.46545 2.7061
-35.5812 16.9893 6.88384 -1.19068 -2.56011 -0.580222
-41.9732 22.7954 7.1973 -0.532247 -0.605227 2.26691
-26.3149 17.1337 6.807 1.39134 2.04348 -1.21538
-18.0064 13.0949 7.1973 0.920988 -1.38371 2.22815
-40.3934 10.0354 6.7216 -0.121008 -0.25672 -3.06387
-47.624 28.9108 12.8646 -0.500514 -2.37162 2.99084
-41.9225 22.766 12.4305 -0.269514 -0.0171596 -2.4585
-17.9729 12.9801 12.7186 1.5782 -0.811122 0.33266
-38.8151 9.99805 12.9062 -0.882361 -1.57945 2.72944
-52.8399 24.1406 12.8046 -2.21895 0.104894 1.25204
-52.5852 31.7864 12.9024 2.219 -0.104862 2.99667
-16.441 -36.1661 3.9375 -0.492097 0.297231 1.57079
31.1081 -33.0921 3.02101 1.03376 -1.5708 0.932483
9.0087 -32.7232 0.313235 -1.5708 0.865822 -0.953383
2.2494 -32.8194 0.00396206 1.5708 0.230319 -1.16882
-12.629 -32.6165 -0.349316 -1.12543 1.5708 -1.41487
-24.8637 -28.6029 -0.5732 -0.118923 1.03227 -1.5708
-19.8295 -0.838822 0.516515 0.450697 1.8392 -0.811887
-15.6841 10.2609 3.60141 -1.50575 -1.5708 1.33672
-18.092 10.1874 -0.0587352 -1.5708 -0.725936 -1.21248
-26.0206 -1.13837 0.265399 0.406542 1.88775 -0.986801
-31.294 -28.0835 0.891913 -1.5708 -0.434285 -0.55038
-34.6773 -29.4193 0.387473 1.5708 -0.250767 -0.901711
-15.559 14.4607 12.7968 -0.394678 -1.5708 0.848323
-10.9454 17.1956 10.0331 1.02607 1.5708 1.44718
-13.7287 14.5258 10.0518 -1.10108 -0.28072 2.86087
-10.6684 17.037 9.74911 -1.14705 -1.5708 -1.28333
-14.0191 17.1428 7.1973 1.10821 0.525879 2.61571
-17.1835 17.037 7.1293 0.923667 -1.5708 3.36516
-45.9724 14.951 12.689 2.31984 0.127252 1.48245
-50.206 19.457 5.19066 -3.4545 -3.05781 1.15447
-52.0923 21.5806 6.9114 -1.1319 -1.46825 -1.16874
-47.3465 16.3693 6.4715 0.0218413 -1.11177 1.48466
-53.279 22.9597 9.7658 2.12079 1.16824 -1.1684
-53.2533 22.9188 9.46194 -0.0815176 -1.67393 2.36922
-43.7382 12.3843 9.04944 0.356037 -1.84799 0.898816
-19.147 11.6919 9.57596 -0.58259 2.56396 -0.689692
-17.818 17.1769 13.6893 1.49497 -1.63389 0.861312
-17.8151 13.7336 16.3743 1.52595 -0.981609 1.55856
-28.246 10.4272 12.8996 3.26396e-05 -3.14159 -0.757999
-22.9813 10.4143 9.99076 0.135847 -4.12394 0
-51.7528 23.3928 3.68208 -0.387701 -2.32816 1.45716
-28.7095 10.4626 6.7111 -1.92729e-05 1.49157 3.14161
-9.43601 14.4599 8.0693 5.25785 -3.7859 0.000182422
-19.3988 17.1499 10.1937 1.57077 -1.19233 -1.05565
-12.6905 17.1852 13.3749 0.498905 0.708354 -1.57489
-13.0694 17.1963 13.4453 1.57078 1.08109 0.371825
-29.1849 17.1645 10.3247 -1.42497 -0.664767 1.57393
-24.8561 17.1541 13.8178 -0.09021 -0.7282 1.57256
-34.7138 17.1071 10.9237 -0.730618 -1.01181 -1.57458
-35.1873 17.104 10.3099 -0.945964 -1.57742 -0.386641
-40.066 20.547 13.5975 -1.5473 -0.6339 -1.1813
-41.8911 22.6098 7.34335 -0.278259 -2.02744 -0.691303
-45.9418 27.1493 10.4345 -0.756331 1.26622 1.5702
-45.7356 26.9489 13.5969 0.299104 2.0077 -1.25247
-42.5266 23.3717 13.0693 1.29449 -0.0123879 1.57578
-46.7325 28.1233 7.35955 1.94133 0.201103 1.44913
-49.4721 31.1705 13.8178 0.521305 1.40425 1.5689
-53.9743 36.1861 7.30342 -1.80433 0.488828 -1.18996
-51.3768 33.366 13.1791 1.27845 -0.140836 1.58542
-51.093 33.0154 4.7019 0.496985 -1.1965 -1.56988
-52.2601 33.9438 10.0531 0.161909 2.21124 1.82874
-50.7923 30.4984 10.0531 -1.3439 0.76506 2.15897
-51.7252 33.4188 9.95956 0.249506 2.27479 -0.609786
-44.9309 24.4287 9.8945 -0.832727 1.13861 -4.2683
-49.4132 24.3959 10.0531 -2.21899 0.104861 3.80031
-49.9088 23.9878 10.0531 -2.21899 0.10486 3.40567
-45.3884 18.4208 10.0531 -2.21906 0.104797 4.36846
-42.3199 21.0615 10.0531 -0.364807 1.15724 4.10323
-38.1118 18.0983 10.0531 0.814708 2.33233 4.02767
-41.8232 16.2739 10.0531 -0.83961 -0.697928 3.28088
-38.513 18.5254 9.8945 0.722243 2.28523 -4.06137
-46.3463 21.995 9.8945 -1.75648 -0.821475 -3.82695
-42.2675 15.9451 9.8945 -1.05291 -1.11026 -3.17125
-46.5192 22.0448 9.8945 -1.81491 -0.90211 -3.81686
-39.4373 14.0614 9.8945 -0.244536 -0.270938 -3.14043
-45.237 17.4713 9.8945 -2.21907 0.104789 -4.18414
-31.2915 13.8692 10.0531 0.901019 0.155821 3.94718
-26.9386 11.5171 10.0531 0.726789 -1.70909 3.95022
-35.4916 14.0092 10.0531 0.473432 0.312731 3.54392
-22.8343 10.1232 10.0148 1.19214 -1.70697 0.704432
-31.8376 14.0508 9.8945 0.891139 0.302278 -3.92547
-26.5245 11.4873 9.8945 0.764468 -1.73692 -3.98697
-38.7654 12.4077 9.8945 -0.33837 -0.884381 -2.90804
-19.6166 11.992 10.0531 1.56601 -1.42481 3.10754
-25.157 16.6953 10.0531 1.41969 1.80159 2.47755
-28.8367 16.495 10.0531 1.33921 1.88339 2.95087
-23.6293 13.6659 10.0531 1.45681 -0.13603 2.2811
-21.5065 15.3986 9.8945 1.50131 0.8059 -2.00801
-25.1985 16.9482 9.8945 1.41848 1.95863 -2.48289
-39.2998 19.7144 7.1987 0.97003 2.53109 3.62622
-47.005 28.2303 7.07019 0.53846 2.38629 -1.95774
-50.9814 27.833 7.1987 -2.21896 0.104894 3.89365
-52.9384 25.3552 7.1987 -2.21896 0.104884 2.08958
-42.6131 18.8643 7.1987 -0.779562 -0.00457555 3.66791
-39.7647 13.1641 7.0401 -0.492345 -0.869071 -2.93959
-38.9792 15.8581 7.0401 0.177091 0.809158 -3.52067
-41.9113 18.4757 7.0401 -0.568246 0.238838 -3.67467
-43.056 15.7562 7.0401 -1.37687 -1.66477 -3.049
-39.273 16.1011 7.0401 0.0997582 0.743377 -3.53257
-53.742 25.8828 7.0401 -2.21895 0.10489 -1.78727
-49.0776 24.2741 7.0401 -2.219 0.104857 -3.9545
-47.2252 20.6938 7.0401 -2.21903 0.104822 -3.98032
-48.758 24.2657 7.0401 -2.219 0.104856 -4.1319
-26.1846 13.6455 7.1987 1.40596 -0.0762072 4.42744
-26.079 12.8853 7.1987 1.20504 -0.663799 4.29534
-36.6453 12.0054 7.1987 -0.215292 -1.21934 3.04925
-30.2089 13.5028 7.0401 0.918822 -0.139434 -3.98902
-37.2514 11.46 7.0401 -0.435224 -1.633 -2.88473
-34.7389 14.4439 7.0401 0.678695 0.639298 -3.70264
-18.3009 13.6864 7.1987 1.57367 -0.419286 1.59571
-20.5695 16.7411 7.1987 1.52027 1.57496 1.88746
-31.6774 16.2882 7.1987 1.27715 1.91461 3.31627
-20.137 16.9581 7.0401 1.5295 1.68368 -1.83183
-23.1571 15.0504 7.0401 1.46552 0.684537 -2.22033
-27.667 16.8246 7.0401 1.36448 2.02 -2.80041
-39.1839 19.6305 12.9075 1.01503 2.569 3.6393
-49.4119 26.0622 12.9075 -2.21898 0.104874 4.27393
-40.3987 13.0531 12.9075 -0.747168 -1.29655 2.8488
-41.7297 18.3768 12.749 -0.513322 0.302596 -3.67672
-44.5242 20.1022 12.749 -1.33013 -0.586624 -3.68247
-46.5639 24.3589 12.749 -1.5116 0.111006 -4.23607
-37.9973 16.3776 12.749 0.619874 1.62743 -3.725
-44.8908 20.8865 12.749 -1.36009 -0.452609 -3.7855
-42.7255 15.7919 12.749 -1.2471 -1.45187 -3.09228
-38.6073 16.2444 12.749 0.371017 1.20425 -3.63281
-49.217 26.1793 12.749 -2.21898 0.104874 -4.41683
-48.9794 21.7692 12.749 -2.21901 0.104841 -3.29879
-37.3787 12.9626 12.9075 -0.0290493 -0.472537 3.15417
-33.4568 15.3322 12.9075 1.06966 1.30952 4.00075
-28.5323 13.5624 12.749 1.12181 -0.112974 -4.1717
-28.2372 13.6253 12.749 1.1722 -0.0679135 -4.2137
-25.2779 12.5772 12.749 1.20789 -0.910764 -4.31936
-33.8492 12.0853 12.749 0.117781 -1.1903 -3.35025
-21.1625 16.4848 12.9075 1.50757 1.45116 1.96375
-27.5029 16.7361 12.9075 1.36819 1.95678 2.7793
-21.101 16.8137 12.9075 1.50853 1.64888 1.95582
-24.9425 13.7832 12.9075 1.42787 0.0085649 2.45001
-30.7394 15.8317 12.749 1.29826 1.58328 -3.19563
-18.6167 12.9988 12.749 1.56756 -0.822332 -1.63634
-21.932 13.0506 12.749 1.49477 -0.606625 -2.06278
-43.2122 23.9063 4.3443 0.667036 2.37923 3.0908
-37.332 17.5974 4.32462 1.13051 2.61481 2.91046
-46.9221 27.5047 4.1857 0.118835 1.99181 -2.60905
-44.1096 24.5864 4.1857 0.407025 2.16657 -2.98743
-51.1173 26.8136 4.3443 -2.21897 0.104884 3.71714
-48.3663 21.5638 4.3443 -2.21895 0.104894 3.67742
-37.195 17.089 4.3443 0.999644 2.50508 4.00873
-41.6395 16.4604 4.3443 -1.17543 0.883075 4.48427
-43.9471 21.0118 4.3443 -1.11455 0.928477 4.47094
-41.6148 16.0524 4.1857 -1.26373 0.81723 -4.50358
-44.5977 17.3716 4.1857 -2.21894 0.104908 -4.6054
-51.8847 27.0903 4.1857 -2.21897 0.10488 -3.33919
-21.3451 16.7253 4.1857 1.43575 1.54721 -1.8622
-38.6555 13.0239 4.1857 -0.115351 -0.285896 -3.02628
-25.062 16.7901 4.1857 1.3706 1.80798 -2.37064
-35.4868 12.7198 4.1857 -0.137369 -0.697638 -2.51801
-19.4883 12.5368 4.1857 1.4609 -0.410521 -1.60071
-31.0384 12.4926 4.1857 0.0240881 -0.988596 -1.99002
-31.566 12.578 4.1857 -0.0414926 -0.976673 -2.00787
-23.1602 13.4581 4.1857 1.0047 -0.184144 -1.72511
-26.2895 11.9857 4.1857 0.614522 -0.981157 -1.8296
-23.6001 13.652 4.1857 0.950085 -0.120391 -1.74007
-21.2139 15.7797 4.1857 1.24822 0.927975 -1.66107
-33.3756 16.6118 4.3443 1.12413 2.14514 3.41064
-28.4672 14.2572 4.3443 0.502973 0.0734281 2.05691
-35.1379 12.3175 4.3443 -0.254727 -1.02371 2.35116
-40.84 -61.4227 10.6147 -1.05697 1.16199 0
-43.192 -63.5621 10.7193 -1.05697 1.16199 0
-32.8947 -54.4526 8.05594 -1.05697 1.16198 0
47.8306 -35.9788 10.9273 -1.0581 1.57088 -1.5708
47.9945 -38.1028 5.53885 3.00462 -0.0831405 -1.5708
47.9945 -38.4532 6.58469 2.5446 -0.597287 -0.837975
47.9945 -25.8598 11.1227 1.95839 0.796664 -0.796714
47.7188 -37.4671 2.78963 -2.13283 0.849941 -1.5708
47.7188 -38.6497 9.75583 -2.25596 -0.885435 0.359735
47.9945 -21.1902 11.5988 1.5708 1.16102 1.0899
27.7133 -37.9077 7.73977 3.34488 0.203273 -1.24013
27.7133 -27.6763 11.1813 2.00814 0.564519 -0.564528
27.4375 -38.5894 4.86811 -2.34458 -0.797013 -1.15674
27.7133 -20.1379 10.9937 1.5708 1.32138 -1.30783
27.7133 -23.3726 11.3977 1.5708 0.82845 0.293098
28.625 -37.7534 10.9491 -3.57169 0.429505 -0.507885
28.625 -37.5753 11.2227 -3.5088 0.400298 -0.400524
28.7469 -24.4122 11.7202 -0.181501 0.670024 1.57079
30.0882 -39.0272 3.46688 1.70211 -1.43952 -0.973099
30.0882 -30.5754 11.1644 2.57614 0.63147 -0.631591
30.0831 -39.1167 3.08173 1.51291 -1.5708 -0.964569
31.2914 -38.376 7.3356 2.65769 -0.483904 -0.722464
31.0156 -38.8223 6.50639 -2.00286 -1.13873 -0.359504
31.1603 -18.5541 11.7202 0.0770081 1.56273 1.5708
32.4662 -23.6245 11.7202 1.4264 0.790063 1.5708
32.2257 -39.1167 11.2436 -1.31299 -1.5708 1.43091
33.6664 -38.5349 3.96191 2.42447 -0.717128 -1.49668
34.7195 -36.6157 10.9273 0.0571853 1.5708 -1.5708
34.8539 -38.6871 2.97229 2.19083 -0.940393 -1.5708
34.5781 -38.4929 8.84314 -2.48615 -0.655446 -0.121158
34.8539 -26.9666 11.5044 1.5708 0.280762 0.715576
35.7656 -37.1737 6.28813 -3.24188 1.28045 -1.5708
35.7656 -27.0471 11.3842 -1.5708 0.268494 0.239522
37.2289 -38.2204 11.5831 2.02436 -1.02774 1.02774
36.9531 -39.0682 11.4287 -1.64193 -1.49966 1.41937
37.2289 -19.3756 11.5662 1.5708 1.43755 0.960679
38.3527 -36.9758 2.88203 1.25894 1.5708 -1.5708
38.432 -37.6074 8.78562 3.7856 0.644011 -1.34124
38.1562 -38.7281 8.24242 -2.14099 -1.0006 0.0221182
38.432 -24.911 11.3369 1.5708 0.594011 0.0521054
39.6195 -39.002 5.74699 1.73916 -1.40244 -0.338215
39.6195 -35.3405 11.2089 3.18915 0.454953 -0.454955
39.3438 -28.8463 11.1814 -2.20643 0.56393 -0.563932
40.6468 -32.3902 10.9273 -1.54336 1.5708 -1.5708
40.5312 -38.5721 10.9442 -2.36992 -0.771675 0.603104
40.5312 -38.2166 11.3347 -2.89166 -0.249929 0.234642
41.9945 -37.6224 3.69389 2.41956 0.622033 -1.5708
41.9945 -38.1074 7.24366 3.05181 -0.0897787 -1.11437
41.7187 -37.0728 3.54892 -2.37361 1.4285 -1.57079
42.9063 -38.9083 6.24148 -1.87668 -1.26492 -0.320414
42.9063 -25.0705 11.2574 -1.5708 0.569704 -0.262801
44.2307 -35.3163 10.9273 -1.38193 1.5708 -1.57079
44.125 -39.0796 9.38414 -1.62527 -1.51633 0.834734
45.3804 -36.9758 7.55584 -1.3228 1.5708 -1.5708
45.3125 -39.0252 3.54353 -1.70505 -1.43654 -0.95334
45.5883 -23.7516 11.532 1.5708 0.770693 0.824941
45.3635 -27.6813 11.7202 -0.990074 0.171847 1.5708
45.4904 -39.1167 4.01522 0.456178 -1.5708 -0.690593
46.7758 -38.7109 11.0468 2.16627 -0.975318 0.821804
-25.6343 -55.9763 11.0476 1.26495 0.943738 -0.930813
-21.9067 -52.5781 9.07015 1.19023 1.02543 0.485732
-61.6221 -24.5701 4.45777 -1.5708 0 0
-61.6221 -26.4591 7.54014 -1.5708 0 0
-61.6009 -51.7939 4.39192 -1.5708 0 0
-61.6009 -39.387 9.80885 -1.5708 0 0
-61.6009 -36.5661 7.7394 -1.5708 0 0
19.352 -32.6979 4.2124 0.869937 1.1025 1.57079
-23.5718 -35.2629 4.2124 -1.55745 -0.3914 1.5708
-6.50083 -32.8209 4.2124 -0.592069 1.03087 1.5708
5.17421 -32.4436 4.2124 0.068168 1.25059 1.5708
5.11984 -31.9373 4.2124 0.0650928 1.54549 1.5708
27.5275 -37.0432 4.2124 1.33228 -1.42838 1.5708
-20.6632 -36.9935 4.2124 -1.39296 -1.3994 1.57079
-4.94311 -35.9152 4.2124 -0.503975 -0.771386 1.57079
12.8908 -35.562 4.2124 0.504552 -0.565658 1.5708
-17.3036 -37.1253 4.2124 -1.20297 -1.47618 1.57079
31.2623 -36.189 4.2124 1.54348 -0.930888 1.5708
8.88949 -34.8956 4.2124 0.278274 -0.17754 1.57079
25.3379 -32.942 4.2124 1.20845 0.960274 1.57079
-11.6953 -32.459 3.816 -0.885823 1.24164 -1.5708
-9.41895 -35.7708 3.816 -0.757089 -0.687278 -1.57079
-1.36059 -34.6831 3.816 -0.30138 -0.0537276 -1.57079
-19.4769 -33.5597 3.816 -1.32588 0.600574 -1.5708
1.38724 -32.9599 3.816 -0.145989 0.949887 -1.5708
-19.2073 -33.6385 3.816 -1.31063 0.554703 -1.5708
2.18138 -32.8571 3.816 -0.101079 1.00976 -1.5708
22.5464 -32.0101 3.816 1.05058 1.50304 -1.57079
-12.403 -36.4313 3.816 -0.92584 -1.07195 -1.57079
5.84794 -37.1298 3.816 0.106273 -1.47879 -1.5708
16.4415 -34.2533 3.816 0.705347 0.196558 -1.57079
19.3803 -35.9573 3.816 0.871541 -0.795896 -1.5708
9.22765 -35.0539 3.816 0.297398 -0.269709 -1.57079
25.5594 -33.0171 3.816 1.22098 0.916551 -1.57079
5.71093 -37.0348 3.816 0.0985246 -1.42347 -1.5708
13.3243 -36.0091 3.816 0.52907 -0.82609 -1.5708
-5.51611 -36.5619 3.816 -0.536378 -1.148 -1.57079
2.69473 -36.2665 3.816 -0.0720459 -0.975957 -1.5708
-12.7883 -37.2878 4.03657 -0.947627 -1.5708 0.177296
-14.7954 5.75093 4.2146 2.0661 -0.389435 2.10025
-14.6415 5.40005 3.9371 2.20752 -0.471759 -2.12248
-15.9878 9.1821 3.9371 0.905376 0.415597 -1.88281
-18.8367 8.06458 4.06583 -2.40872 1.24669 0.211113
-17.6978 3.70829 4.2146 -0.134972 0.0597313 3.35344
-27.0256 -3.31262 4.2146 -1.09203 0.483036 2.94798
-22.4564 -4.76084 3.9371 2.57201 -1.1369 -3.74277
-21.3134 0.862762 3.9371 -0.42478 0.188035 -3.91506
-24.1427 -2.01403 3.9371 -0.226608 0.100429 -3.51242
-29.7627 -10.823 4.2074 -2.2974 1.28977 2.94029
-25.7703 -6.40906 4.2146 0.953984 -0.377274 3.54853
-29.5595 -4.34251 4.2146 -2.41231 1.09643 2.44732
-27.0619 -9.50383 4.2146 -0.0231735 0.190942 3.56044
-23.9803 -9.34288 4.2146 2.53472 -0.914195 3.97155
-26.177 -29.9008 4.2146 1.09368 0.91647 4.13203
-23.9061 -14.9134 4.2146 2.63709 -0.574625 3.91137
-26.9689 -12.2461 3.9371 0.180145 0.201422 -3.86185
-25.4048 -5.82635 3.9371 1.24364 -0.532986 -3.57503
-28.9172 -15.4402 3.9371 -1.35992 1.03298 -3.72954
-29.0247 -15.9367 3.9371 -1.43056 1.08442 -3.75488
-28.8812 -27.7587 3.9371 -0.915581 1.41134 -4.56952
-26.9395 -24.1357 3.9371 0.482921 0.725318 -4.3005
-26.1421 -17.791 3.9371 1.0156 0.132406 -4.23247
-27.4348 -20.7416 3.9371 0.0891793 0.623636 -4.40686
-25.2543 -18.3197 3.9371 1.67372 -0.0412356 -4.09037
-24.6748 -14.5074 3.9371 2.06772 -0.420966 -4.03395
-33.8615 -31.4405 4.2146 -2.14642 0.268189 3.02593
-26.2947 -36.9245 4.2146 1.73147 0.45558 3.44433
-29.4868 -34.7902 4.2146 -0.0719607 0.266882 3.40914
-32.6285 -34.406 4.2146 -1.54264 -0.218025 3.07848
-26.793 -33.013 3.9371 0.815525 1.04984 -4.05597
-32.2171 -27.1464 3.9371 -1.58581 1.53682 -3.46628
-28.7323 -39.4484 3.9371 0.42535 -0.858133 -2.52523
-30.9999 -37.3077 3.9371 -0.505733 -0.574742 -2.72972
-28.4535 -42.2968 4.2146 0.299807 -1.87754 1.68771
-5.41244 -31.877 5.1049 -0.528589 -0.5292 -0.666004
-14.8324 -47.3288 3.54442 -0.626264 -1.54678 2.96941
31.7199 -35.6745 5.0233 -0.391283 -0.536198 1.46423
-23.8214 -21.1061 5.0233 0.869811 0.934312 4.04188
-2.3835 -31.8697 4.88919 0.335347 0.333986 -1.05108
-20.1154 -2.68417 4.87672 -2.62786 1.16353 -2.64101
-20.7243 4.80503 4.91056 -2.62792 1.16184 3.10111
-19.1248 -54.3773 2.52361 0.754346 -1.36385 1.65966
23.5488 -37.27 4.76812 -1.16906 1.26429 1.1435
-31.7238 -40.5628 4.78278 -2.31372 -1.50098 0.916357
-20.9147 -40.6379 4.69379 1.14398 0.762054 1.67801
14.5232 -31.866 4.6817 0.766107 0.766222 0.428906
-29.7624 -11.764 4.69096 2.25554 -1.30591 2.8877
23.6189 -37.2499 4.55036 1.21278 -1.11776 -1.16452
-23.8453 -10.9363 4.5842 -2.04018 1.03506 2.55803
-31.5416 -40.7444 4.55188 0.465623 0.756685 -2.53407
-29.8614 -7.2114 4.50133 -1.04517 1.5708 -0.538754
-14.6216 -47.4634 2.54017 2.32528 2.01469 0.335481
-20.9846 -37.3632 3.92898 1.17926 -0.564689 0.729913
31.6591 -31.8922 3.98889 -1.57079 -1.5708 -0.739
13.0958 -31.8922 4.19832 -1.57079 -1.5708 3.1907
9.61572 -31.8922 3.91653 -1.57079 -1.5708 -2.7126
-16.0935 -31.8923 4.0187 -1.57079 -1.5708 -0.449018
-23.8653 -23.9836 3.85116 -1.89499 -0.732618 -1.45404
-14.8466 2.09664 4.14042 -2.62778 1.16197 2.48249
-14.8787 2.02749 3.8217 -1.88874 0.835172 -3.81682
-16.47 14.9989 3.8217 1.49517 0.151152 -2.99045
-22.216 -4.73618 4.07319 2.62777 -1.16198 -0.589708
-20.9731 4.692 3.94241 -2.62778 1.16198 1.56176
-24.0483 2.04923 4.21387 -2.62778 1.16198 2.8704
-26.2285 -0.148859 4.2181 1.35074 -0.597279 3.01562
-29.8418 -7.78235 4.2181 1.98884 -0.79251 3.97706
-27.4869 -45.5025 4.2181 -0.871082 -1.57469 3.09848
-35.3835 -36.7135 4.12402 -2.70303 -1.15955 -2.89018
-36.0427 -35.3754 4.13835 -2.65354 -0.878667 -3.28844
-26.5461 -0.243839 3.8217 -2.23932 0.990214 -2.95946
-18.8861 7.00972 3.97073 2.55893 -1.18859 -0.729305
-17.4599 -0.564438 4.16289 2.62776 -1.16199 -2.76354
-23.7697 -28.0146 3.91917 1.72666 1.16782 1.22157
19.0603 -31.7965 4.13235 1.57079 1.5708 -3.66427
-15.0493 -31.7567 3.8777 1.57079 1.5708 3.15696
-10.592 -31.7966 3.90676 1.57079 1.5708 1.35308
9.32389 -31.7334 3.8777 1.57079 1.5708 4.25139
-27.4336 -45.138 4.0956 -2.51308 -0.568938 -2.06365
-25.1677 -40.2704 4.0956 -0.840633 1.25363 -1.6983
-24.7953 -43.0925 4.0956 -1.58448 0.237718 -2.10977
-18.3254 -43.9968 4.02805 2.03146 2.72668 -2.90342
-25.1316 -40.117 4.2176 -0.553775 1.29034 1.57078
-21.7207 -40.2514 4.2176 0.765545 1.24904 1.5707
-20.9982 -44.5832 4.2176 1.03159 -0.422158 1.57057
-24.5863 -46.5232 4.2176 -0.362728 -1.18282 1.5706
-18.1576 -48.1542 2.5965 -0.494492 1.10407 1.57078
-20.052 -51.2342 2.5965 -0.764224 -0.634578 1.57076
-14.8894 -50.3584 1.65616 1.34972 1.10102 -2.15864
-23.3059 -28.8316 13.77 -1.5708 -0.0525175 0.087902
-62.0745 -35.2765 10.7702 -1.5708 1.30317 -0.272886
-62.4114 -28.4127 4.4341 -0.930433 1.51068 -1.5708
-62.3905 -32.3601 4.70955 -1.14139 1.5708 0
-62.378 -29.7082 7.06422 -0.30971 -1.5708 0
-62.2491 -32.0288 10.4897 -0.216493 -1.5708 0.796002
-54.9166 -17.4921 2.90314 1.5708 -1.29897 -1.12492
-54.9757 -17.5093 13.6533 -1.05293 -1.5708 1.52384
-57.1666 -17.5013 4.6801 1.5708 -1.44397 -0.687088
-57.2374 -17.3409 11.5322 -1.5708 1.09675 1.00122
-57.044 -61.1499 10.1286 -0.990426 -1.24555 0.654964
-55.1123 -63.1751 7.50275 -0.358056 -1.94061 0.0264446
-56.583 -61.5583 5.00292 -2.12348 0.00090703 1.22659
-58.1046 -59.7146 7.01895 0.191596 2.302 0
-59.4103 -58.5293 10.4146 0.941012 -1.26786 0
22.2582 -35.0861 3.16761 1.57293 -1.45362 1.29732
1.41355 -25.018 2.28577 1.00722 1.57189 0.40146
3.22179 5.19771 1.0592 -0.683904 1.30514 1.57069
5.64688 -2.79935 1.0592 0.357354 0.702141 1.57074
2.40153 -12.707 1.0592 -1.03782 -0.0455141 1.57072
1.25795 -20.3644 1.0592 -1.5298 -0.623216 1.5707
1.61935 -2.04811 1.0592 -1.37299 0.758425 1.57069
1.43225 -1.43069 1.0592 -1.45332 0.804982 1.57068
2.60879 -31.5903 1.0592 -0.950359 -1.46988 1.57075
2.9849 -17.0599 1.0592 -0.787545 -0.37381 1.57074
2.85425 -5.30486 1.0592 -0.842688 0.51287 1.57072
8.23798 -5.10576 0.3445 1.47041 0.528434 -1.57077
6.25051 -12.6211 0.3445 0.615872 -0.0386058 -1.57091
3.31488 -9.8542 0.3445 -0.645191 0.169903 -1.57098
1.15723 2.40323 0.87205 -1.57117 1.09423 0.747974
4.54532 8.22738 2.3304 1.28407 0.382668 1.57089
1.26468 8.43101 2.3304 -1.28106 0.82967 1.56966
0.89465 8.1169 2.32759 -1.5708 0.133539 1.56795
-9.70688 1.3632 0.191012 -0.00319234 -1.5708 1.47654
-4.18385 18.1201 1.17989 -0.726542 1.5708 1.21545
-9.98886 22.476 -0.5781 -0.44471 1.53109 -1.5708
-10.9562 22.0846 0.890838 -0.74842 -1.5708 0.757326
-7.29971 22.0846 0.278191 0.39957 -1.5708 -0.213659
4.0411 13.1655 0.208035 -1.00863 2.01286 -0.115709
3.92048 13.3474 -0.0617017 -0.401422 2.34839 -0.761981
3.4068 9.32683 -0.530307 0.114409 -2.28297 -2.79836
2.69868 17.6193 -0.5747 1.18592 1.81443 -1.95567
2.4592 17.0413 -0.217987 0.393983 1.69027 -1.95964
-4.8354 20.4872 -0.34402 0.445861 0.188328 -1.80401
-12.3437 -1.46834 0.193546 1.76499 -1.51172 0.929842
-14.966 -3.8321 -0.0439231 1.48276 -2.08784 -0.605974
-17.0293 -6.55984 -0.5781 -1.32036 1.04023 -2.28422
-20.1101 -14.2109 0.473511 -2.32363 0.197037 1.98588
-19.6068 -19.3301 -0.5781 0.209831 -0.285444 -3.11464
-19.5726 -19.4665 0.4791 -0.100881 -0.372101 2.98722
-11.8872 -1.50986 -0.0495 -1.13838 0.572691 3.75127
-13.721 11.6623 -0.5781 -0.253281 0.539351 -1.29981
-4.91884 -26.0632 -0.468943 1.14547 2.02084 -1.02253
-10.7282 5.72594 0.783043 -2.48295 -0.657704 3.27726
-14.9493 -3.4702 0.551524 1.46077 -2.14834 0.88641
-19.0084 -10.3307 0.76576 -2.02326 0.876286 1.39169
-17.2003 -6.71214 -0.5781 1.11749 -1.67307 -4.06225
-21.59 -16.8604 0.154386 -2.52938 -0.268274 -0.14804
-15.6659 -25.1014 0.886908 -1.68306 -1.86144 1.89954
-17.943 -22.3135 1.0077 0.483253 -0.858763 3.21409
-17.7732 -22.2527 1.0077 1.8152 0.82514 3.98223
-7.96067 -29.0031 0.100771 -0.309452 -2.29803 -0.562312
-2.15436 -28.9907 1.0077 0.953254 -1.67316 1.80943
1.16626 -28.6187 -0.5781 1.56957 1.47813 -1.57799
-17.6402 -48.396 2.8783 -1.08563 -1.95609 2.96859
-21.6224 -47.5027 3.99209 2.33913 2.64781 -1.5944
-13.0856 9.29942 8.2846 0 0 1.66866
-12.4193 9.29952 5.221 0 0.394572 2.70154
-13.2174 14.1064 3.5616 0 -0.270136 -0.0696467
-61.5681 -45.6844 12.7809 -1.5708 -0.469886 1.54858
-46.0994 -68.2975 4.6367 -0.0416459 1.96073 -1.57248
-23.6197 -28.0496 3.37982 2.83139 -0.502814 -1.29442
-23.4158 -31.7762 5.0391 -1.39902 -0.0358853 -1.5708
-20.5121 -31.8271 12.9794 1.49216 -1.46515 1.5708
-20.5951 -31.5002 16.8889 0.395582 -1.12429 1.5708
-24.0126 -31.3835 20.8906 -0.785007 -1.00265 -1.5708
-20.6337 -29.4615 20.8912 -0.172881 1.02843 1.5708
-23.7844 -25.9138 24.9175 -8.36833 3.28862 8.67794
-20.6435 -31.6103 22.9013 -0.0592488 0.344375 -0.472221
-20.7654 -25.8946 20.9252 0.961413 -0.966067 3.0938
-23.7119 -31.6749 20.8846 -1.16962 -1.39307 -2.09677
-23.7267 -25.9002 23.7777 5.9424 -6.99439 0.0281935
-20.658 -25.9002 22.3458 -1.18442 -9.04586 -0.0179584
-23.7415 -31.6331 26.9617 0.663072 0.777646 0.664724
-23.7207 -25.8483 28.0051 6.51231 2.89526 0.0434933
-20.7012 -25.8358 26.8842 -12.559 9.63249 -0.0174788
-23.7655 -25.8572 27.8284 12.5624 -9.67783 -0.0062373
-20.6716 -26.9487 16.7666 1.30209 0.716897 -1.8395
-23.7874 -26.4731 20.6861 -3.58922 2.12881 -3.52453
-20.632 -30.3119 19.7693 1.18585 0.0849345 -1.94053
-23.7624 -29.1884 17.878 -1.94989 0.0255239 -0.27349
-20.6297 -27.8281 17.4914 2.63716 -1.14507 -0.538688
-23.7162 -26.0465 16.9383 0.0494589 -0.126479 -3.19105
-20.852 -31.6584 16.7738 -0.685 1.61046 -0.687495
-23.7824 -31.6294 14.7026 -2.36803 1.08234 -1.0293
-20.6779 -25.8286 13.1328 -1.73264 5.10469 -1.7176
-20.6298 -31.6452 9.71723 5.63338 0.863101 -0.855102
-23.7387 -29.7584 9.90076 1.50853 -3.02269 -0.150362
-20.6842 -26.1297 12.7918 -0.988673 -0.985678 -1.29467
-23.7655 -25.87 10.9497 12.5662 9.3136 -0.000224237
-20.6648 -27.7188 9.04826 -9.42476 0 0
-22.9902 -25.8786 6.94746 -0.593934 -0.629148 -1.15898
-20.6933 -25.8598 5.14068 0.318428 0.316034 3.14084
-20.655 -29.7467 5.53792 0.0572324 -1.90183 -0.749459
-20.6676 -25.8949 4.93268 3.03082 -2.91421 2.22642
-2.26116 -34.2874 3.0499 1.11818 0.00169208 -1.56589
-16.9736 -46.2561 14.4537 1.84585 1.51092 3.0173
52.0891 14.8191 10.5546 0 3.18504 0
52.4325 6.8902 11.4307 0 -1.82454 0
51.8738 2.1297 7.20401 0 3.42892 0
52.3763 2.1297 7.60246 0 2.0472 0
28.0785 -28.2963 1.48442 1.5708 -1.06018 -0.234822
28.0385 -22.0145 4.588 -1.57081 -0.165996 0.211933
28.0366 10.0051 2.23212 -1.57079 -0.336297 1.11619
28.2345 -29.8875 3.97883 2.43942 -0.667079 -1.01144
28.2342 -25.1421 3.94143 4.96576 -0.301396 0.406284
28.2337 -16.5109 4.41135 3.65015 0.488073 -0.917648
28.2327 1.50368 4.66902 2.95 -0.471528 0.192003
